9.395217490000000449e-02 -1.060643636999999972e-01 -7.504554000000000086e-03
1.104783326000000065e-01 -8.953820599999999519e-02 -4.055686950000000207e-02
1.104783326000000065e-01 -7.301204829999999313e-02 -5.708302719999999719e-02
9.395217490000000449e-02 -7.301204829999999313e-02 -4.055686950000000207e-02
9.395217490000000449e-02 -3.995973290000000289e-02 -5.708302719999999719e-02
1.104783326000000065e-01 -3.995973290000000289e-02 -4.055686950000000207e-02
9.395217490000000449e-02 5.919721339999999693e-02 -4.055686950000000207e-02
1.104783326000000065e-01 7.572337110000000593e-02 -4.055686950000000207e-02
9.395217490000000449e-02 1.253018442000000121e-01 -4.055686950000000207e-02
1.104783326000000065e-01 1.253018442000000121e-01 -5.708302719999999719e-02
1.104783326000000065e-01 1.087756864999999962e-01 -4.055686950000000207e-02
1.104783326000000065e-01 1.418280019000000003e-01 -7.504554000000000086e-03
1.104783326000000065e-01 1.583541595999999885e-01 9.021603700000000239e-03
1.104783326000000065e-01 1.748803173000000044e-01 -7.504554000000000086e-03
1.435306480000000107e-01 -1.060643636999999972e-01 9.021603700000000239e-03
1.435306480000000107e-01 -3.995973290000000289e-02 -5.708302719999999719e-02
1.435306480000000107e-01 9.224952879999999411e-02 -5.708302719999999719e-02
1.270044902999999947e-01 1.253018442000000121e-01 -4.055686950000000207e-02
1.270044902999999947e-01 1.583541595999999885e-01 -5.708302719999999719e-02
1.270044902999999947e-01 2.244587905000000050e-01 -4.055686950000000207e-02
1.435306480000000107e-01 2.079326327999999890e-01 -4.055686950000000207e-02
1.435306480000000107e-01 2.244587905000000050e-01 -5.708302719999999719e-02
1.435306480000000107e-01 2.409849481999999932e-01 -4.055686950000000207e-02
1.435306480000000107e-01 2.575111058999999814e-01 9.021603700000000239e-03
1.600568058000000071e-01 -7.301204829999999313e-02 -4.055686950000000207e-02
1.600568058000000071e-01 -3.995973290000000289e-02 -4.055686950000000207e-02
1.765829634999999953e-01 -5.648589059999999801e-02 -4.055686950000000207e-02
1.765829634999999953e-01 -3.995973290000000289e-02 -5.708302719999999719e-02
1.765829634999999953e-01 -3.995973290000000289e-02 -2.403071169999999868e-02
1.765829634999999953e-01 -3.995973290000000289e-02 9.021603700000000239e-03
1.600568058000000071e-01 -3.995973290000000289e-02 -7.504554000000000086e-03
1.765829634999999953e-01 -2.343357520000000083e-02 -4.055686950000000207e-02
1.765829634999999953e-01 2.614489789999999841e-02 -4.055686950000000207e-02
1.765829634999999953e-01 1.253018442000000121e-01 -5.708302719999999719e-02
1.765829634999999953e-01 1.583541595999999885e-01 -5.708302719999999719e-02
1.600568058000000071e-01 1.914064749999999926e-01 -4.055686950000000207e-02
1.765829634999999953e-01 1.748803173000000044e-01 -7.360918489999999925e-02
1.765829634999999953e-01 2.079326327999999890e-01 -4.055686950000000207e-02
1.765829634999999953e-01 2.905634213000000132e-01 -5.708302719999999719e-02
1.765829634999999953e-01 2.740372636000000250e-01 -4.055686950000000207e-02
1.600568058000000071e-01 2.905634213000000132e-01 -7.504554000000000086e-03
1.765829634999999953e-01 2.905634213000000132e-01 9.021603700000000239e-03
1.600568058000000071e-01 6.871912063999999765e-01 2.554776140000000056e-02
1.765829634999999953e-01 6.541388908999999918e-01 2.554776140000000056e-02
1.931091212000000112e-01 6.706650486999999883e-01 2.554776140000000056e-02
1.931091212000000112e-01 6.871912063999999765e-01 9.021603700000000239e-03
1.931091212000000112e-01 7.037173640999999646e-01 2.554776140000000056e-02
1.931091212000000112e-01 -7.301204829999999313e-02 -7.504554000000000086e-03
2.096352788999999994e-01 -7.301204829999999313e-02 9.021603700000000239e-03
1.931091212000000112e-01 -3.995973290000000289e-02 -7.504554000000000086e-03
1.931091212000000112e-01 -6.907417499999999634e-03 -4.055686950000000207e-02
1.931091212000000112e-01 -6.907417499999999634e-03 -7.504554000000000086e-03
2.096352788999999994e-01 5.919721339999999693e-02 -5.708302719999999719e-02
2.096352788999999994e-01 1.087756864999999962e-01 -7.360918489999999925e-02
2.096352788999999994e-01 1.253018442000000121e-01 -5.708302719999999719e-02
1.931091212000000112e-01 1.914064749999999926e-01 -7.360918489999999925e-02
2.096352788999999994e-01 1.914064749999999926e-01 -9.013534260000000131e-02
2.096352788999999994e-01 2.244587905000000050e-01 -5.708302719999999719e-02
2.096352788999999994e-01 2.409849481999999932e-01 -7.360918489999999925e-02
1.931091212000000112e-01 2.905634213000000132e-01 -4.055686950000000207e-02
2.096352788999999994e-01 2.740372636000000250e-01 -7.360918489999999925e-02
2.096352788999999994e-01 3.070895790000000014e-01 -4.055686950000000207e-02
2.096352788999999994e-01 3.566680521999999742e-01 -5.708302719999999719e-02
2.096352788999999994e-01 3.731942099000000179e-01 -4.055686950000000207e-02
2.096352788999999994e-01 3.897203676000000061e-01 -2.403071169999999868e-02
2.096352788999999994e-01 4.227726829999999825e-01 -2.403071169999999868e-02
2.096352788999999994e-01 4.062465252999999943e-01 -7.504554000000000086e-03
2.096352788999999994e-01 4.227726829999999825e-01 9.021603700000000239e-03
2.096352788999999994e-01 6.871912063999999765e-01 2.554776140000000056e-02
2.096352788999999994e-01 7.037173640999999646e-01 9.021603700000000239e-03
2.261614365999999876e-01 -3.995973290000000289e-02 -7.504554000000000086e-03
2.426875943000000035e-01 -3.995973290000000289e-02 9.021603700000000239e-03
2.261614365999999876e-01 -6.907417499999999634e-03 -4.055686950000000207e-02
2.426875943000000035e-01 -6.907417499999999634e-03 9.021603700000000239e-03
2.426875943000000035e-01 2.614489789999999841e-02 -5.708302719999999719e-02
2.426875943000000035e-01 9.618740199999999824e-03 -7.504554000000000086e-03
2.426875943000000035e-01 4.267105570000000181e-02 -4.055686950000000207e-02
2.426875943000000035e-01 5.919721339999999693e-02 -5.708302719999999719e-02
2.426875943000000035e-01 1.418280019000000003e-01 -7.360918489999999925e-02
2.261614365999999876e-01 2.244587905000000050e-01 -9.013534260000000131e-02
2.426875943000000035e-01 2.409849481999999932e-01 -7.360918489999999925e-02
2.426875943000000035e-01 2.905634213000000132e-01 -9.013534260000000131e-02
2.426875943000000035e-01 2.740372636000000250e-01 -7.360918489999999925e-02
2.426875943000000035e-01 3.070895790000000014e-01 -7.360918489999999925e-02
2.426875943000000035e-01 3.236157366999999896e-01 -9.013534260000000131e-02
2.261614365999999876e-01 3.566680521999999742e-01 -4.055686950000000207e-02
2.426875943000000035e-01 3.401418943999999778e-01 -7.360918489999999925e-02
2.261614365999999876e-01 3.897203676000000061e-01 -4.055686950000000207e-02
2.426875943000000035e-01 3.566680521999999742e-01 -5.708302719999999719e-02
2.426875943000000035e-01 3.731942099000000179e-01 -4.055686950000000207e-02
2.261614365999999876e-01 4.227726829999999825e-01 -4.055686950000000207e-02
2.426875943000000035e-01 4.062465252999999943e-01 -4.055686950000000207e-02
2.426875943000000035e-01 4.227726829999999825e-01 -2.403071169999999868e-02
2.426875943000000035e-01 4.392988407000000262e-01 -4.055686950000000207e-02
2.426875943000000035e-01 4.392988407000000262e-01 -7.504554000000000086e-03
2.261614365999999876e-01 4.888773137999999907e-01 -7.504554000000000086e-03
2.426875943000000035e-01 4.723511561000000025e-01 -4.055686950000000207e-02
2.426875943000000035e-01 4.723511561000000025e-01 -7.504554000000000086e-03
2.426875943000000035e-01 4.888773137999999907e-01 9.021603700000000239e-03
2.426875943000000035e-01 5.054034715999999872e-01 -7.504554000000000086e-03
2.426875943000000035e-01 5.384557869999999635e-01 -7.504554000000000086e-03
2.261614365999999876e-01 5.549819446999999517e-01 2.554776140000000056e-02
2.426875943000000035e-01 5.384557869999999635e-01 2.554776140000000056e-02
2.426875943000000035e-01 6.210865755000000155e-01 9.021603700000000239e-03
2.426875943000000035e-01 6.045604178000000273e-01 2.554776140000000056e-02
2.426875943000000035e-01 6.210865755000000155e-01 4.207391910000000262e-02
2.426875943000000035e-01 6.541388908999999918e-01 9.021603700000000239e-03
2.261614365999999876e-01 6.541388908999999918e-01 2.554776140000000056e-02
2.261614365999999876e-01 6.871912063999999765e-01 9.021603700000000239e-03
2.426875943000000035e-01 6.871912063999999765e-01 2.554776140000000056e-02
2.426875943000000035e-01 7.202435217999999528e-01 2.554776140000000056e-02
2.426875943000000035e-01 7.037173640999999646e-01 9.021603700000000239e-03
2.592137520000000195e-01 -6.907417499999999634e-03 -7.504554000000000086e-03
2.757399097000000077e-01 4.267105570000000181e-02 9.021603700000000239e-03
2.757399097000000077e-01 7.572337110000000593e-02 -7.504554000000000086e-03
2.592137520000000195e-01 9.224952879999999411e-02 -4.055686950000000207e-02
2.592137520000000195e-01 1.253018442000000121e-01 -7.360918489999999925e-02
2.757399097000000077e-01 1.583541595999999885e-01 -9.013534260000000131e-02
2.592137520000000195e-01 1.583541595999999885e-01 -7.360918489999999925e-02
2.757399097000000077e-01 1.748803173000000044e-01 -7.360918489999999925e-02
2.757399097000000077e-01 2.244587905000000050e-01 -9.013534260000000131e-02
2.592137520000000195e-01 3.236157366999999896e-01 -7.360918489999999925e-02
2.757399097000000077e-01 3.236157366999999896e-01 -9.013534260000000131e-02
2.592137520000000195e-01 3.566680521999999742e-01 -7.360918489999999925e-02
2.757399097000000077e-01 3.566680521999999742e-01 -9.013534260000000131e-02
2.757399097000000077e-01 3.401418943999999778e-01 -7.360918489999999925e-02
2.757399097000000077e-01 3.731942099000000179e-01 -7.360918489999999925e-02
2.592137520000000195e-01 4.227726829999999825e-01 -4.055686950000000207e-02
2.592137520000000195e-01 4.558249984000000143e-01 -5.708302719999999719e-02
2.757399097000000077e-01 4.558249984000000143e-01 -4.055686950000000207e-02
2.592137520000000195e-01 4.888773137999999907e-01 -4.055686950000000207e-02
2.592137520000000195e-01 5.219296292999999753e-01 -7.504554000000000086e-03
2.592137520000000195e-01 5.549819446999999517e-01 -7.504554000000000086e-03
2.757399097000000077e-01 5.880342601000000391e-01 9.021603700000000239e-03
2.757399097000000077e-01 6.210865755000000155e-01 9.021603700000000239e-03
3.087922251999999923e-01 9.224952879999999411e-02 -4.055686950000000207e-02
3.087922251999999923e-01 7.572337110000000593e-02 -7.504554000000000086e-03
2.922660673999999958e-01 9.224952879999999411e-02 -7.504554000000000086e-03
3.087922251999999923e-01 9.224952879999999411e-02 9.021603700000000239e-03
3.087922251999999923e-01 1.087756864999999962e-01 -7.504554000000000086e-03
3.087922251999999923e-01 1.418280019000000003e-01 -4.055686950000000207e-02
3.087922251999999923e-01 1.914064749999999926e-01 -9.013534260000000131e-02
2.922660673999999958e-01 1.914064749999999926e-01 -7.360918489999999925e-02
3.087922251999999923e-01 1.914064749999999926e-01 -5.708302719999999719e-02
3.087922251999999923e-01 2.079326327999999890e-01 -7.360918489999999925e-02
3.087922251999999923e-01 2.409849481999999932e-01 -7.360918489999999925e-02
3.087922251999999923e-01 2.740372636000000250e-01 -7.360918489999999925e-02
3.087922251999999923e-01 2.905634213000000132e-01 -9.013534260000000131e-02
2.922660673999999958e-01 3.566680521999999742e-01 -7.360918489999999925e-02
2.922660673999999958e-01 3.897203676000000061e-01 -7.360918489999999925e-02
2.922660673999999958e-01 4.558249984000000143e-01 -5.708302719999999719e-02
2.922660673999999958e-01 4.888773137999999907e-01 -4.055686950000000207e-02
3.087922251999999923e-01 4.723511561000000025e-01 -4.055686950000000207e-02
3.087922251999999923e-01 4.558249984000000143e-01 -2.403071169999999868e-02
2.922660673999999958e-01 5.219296292999999753e-01 -7.504554000000000086e-03
2.922660673999999958e-01 5.549819446999999517e-01 -7.504554000000000086e-03
3.087922251999999923e-01 5.384557869999999635e-01 -7.504554000000000086e-03
3.087922251999999923e-01 5.219296292999999753e-01 9.021603700000000239e-03
3.087922251999999923e-01 5.549819446999999517e-01 9.021603700000000239e-03
3.253183828999999805e-01 1.253018442000000121e-01 -4.055686950000000207e-02
3.418445406000000242e-01 1.253018442000000121e-01 -2.403071169999999868e-02
3.253183828999999805e-01 1.418280019000000003e-01 -7.504554000000000086e-03
3.418445406000000242e-01 1.748803173000000044e-01 -4.055686950000000207e-02
3.253183828999999805e-01 1.914064749999999926e-01 -4.055686950000000207e-02
3.253183828999999805e-01 2.244587905000000050e-01 -7.360918489999999925e-02
3.418445406000000242e-01 2.079326327999999890e-01 -4.055686950000000207e-02
3.253183828999999805e-01 3.236157366999999896e-01 -7.360918489999999925e-02
3.253183828999999805e-01 3.566680521999999742e-01 -7.360918489999999925e-02
3.418445406000000242e-01 3.401418943999999778e-01 -7.360918489999999925e-02
3.418445406000000242e-01 3.731942099000000179e-01 -5.708302719999999719e-02
3.253183828999999805e-01 4.227726829999999825e-01 -4.055686950000000207e-02
3.418445406000000242e-01 4.227726829999999825e-01 -5.708302719999999719e-02
3.418445406000000242e-01 4.227726829999999825e-01 -2.403071169999999868e-02
3.253183828999999805e-01 4.888773137999999907e-01 -4.055686950000000207e-02
3.253183828999999805e-01 5.219296292999999753e-01 -7.504554000000000086e-03
3.418445406000000242e-01 5.219296292999999753e-01 9.021603700000000239e-03
3.583706983000000124e-01 1.583541595999999885e-01 -4.055686950000000207e-02
3.748968560000000005e-01 1.583541595999999885e-01 9.021603700000000239e-03
3.583706983000000124e-01 1.914064749999999926e-01 -4.055686950000000207e-02
3.748968560000000005e-01 2.244587905000000050e-01 -2.403071169999999868e-02
3.748968560000000005e-01 2.244587905000000050e-01 9.021603700000000239e-03
3.748968560000000005e-01 2.409849481999999932e-01 -4.055686950000000207e-02
3.583706983000000124e-01 2.575111058999999814e-01 -4.055686950000000207e-02
3.748968560000000005e-01 2.409849481999999932e-01 -7.504554000000000086e-03
3.748968560000000005e-01 2.575111058999999814e-01 -2.403071169999999868e-02
3.748968560000000005e-01 2.740372636000000250e-01 -4.055686950000000207e-02
3.748968560000000005e-01 2.905634213000000132e-01 -2.403071169999999868e-02
3.748968560000000005e-01 2.740372636000000250e-01 -7.504554000000000086e-03
3.748968560000000005e-01 3.236157366999999896e-01 -5.708302719999999719e-02
3.748968560000000005e-01 3.401418943999999778e-01 -4.055686950000000207e-02
3.583706983000000124e-01 3.897203676000000061e-01 -4.055686950000000207e-02
3.748968560000000005e-01 3.731942099000000179e-01 -4.055686950000000207e-02
3.748968560000000005e-01 3.897203676000000061e-01 -5.708302719999999719e-02
3.748968560000000005e-01 4.062465252999999943e-01 -4.055686950000000207e-02
3.583706983000000124e-01 4.227726829999999825e-01 -4.055686950000000207e-02
3.748968560000000005e-01 4.062465252999999943e-01 -7.504554000000000086e-03
3.748968560000000005e-01 4.227726829999999825e-01 -5.708302719999999719e-02
3.748968560000000005e-01 4.227726829999999825e-01 9.021603700000000239e-03
3.748968560000000005e-01 4.558249984000000143e-01 9.021603700000000239e-03
3.914230136999999887e-01 2.244587905000000050e-01 -7.504554000000000086e-03
3.914230136999999887e-01 3.236157366999999896e-01 -4.055686950000000207e-02
3.914230136999999887e-01 3.897203676000000061e-01 -4.055686950000000207e-02
3.914230136999999887e-01 3.897203676000000061e-01 -7.504554000000000086e-03
3.914230136999999887e-01 4.227726829999999825e-01 -7.504554000000000086e-03
-5.009895026999999779e-01 -2.547997831000000102e-01 1.081785499000000039e-01
-4.679371873000000015e-01 -2.878520985999999948e-01 1.081785499000000039e-01
-4.679371873000000015e-01 -2.547997831000000102e-01 1.081785499000000039e-01
-4.348848718000000169e-01 -3.209044140000000267e-01 1.081785499000000039e-01
-4.348848718000000169e-01 -2.878520985999999948e-01 7.512623449999999981e-02
-4.348848718000000169e-01 -2.547997831000000102e-01 1.081785499000000039e-01
-4.348848718000000169e-01 -2.217474677000000061e-01 1.081785499000000039e-01
-4.018325563999999850e-01 -3.209044140000000267e-01 1.081785499000000039e-01
-4.018325563999999850e-01 -2.878520985999999948e-01 7.512623449999999981e-02
-3.687802410000000086e-01 -3.209044140000000267e-01 4.207391910000000262e-02
-3.687802410000000086e-01 -3.209044140000000267e-01 7.512623449999999981e-02
-3.687802410000000086e-01 -2.878520985999999948e-01 4.207391910000000262e-02
-3.687802410000000086e-01 -1.886951523000000019e-01 4.207391910000000262e-02
-3.357279255999999767e-01 -3.209044140000000267e-01 7.512623449999999981e-02
-3.357279255999999767e-01 -2.547997831000000102e-01 9.021603700000000239e-03
-3.357279255999999767e-01 -1.886951523000000019e-01 9.021603700000000239e-03
-3.357279255999999767e-01 -1.886951523000000019e-01 4.207391910000000262e-02
-3.026756100999999921e-01 -2.547997831000000102e-01 9.021603700000000239e-03
-3.026756100999999921e-01 -1.886951523000000019e-01 9.021603700000000239e-03
-2.696232947000000157e-01 -3.209044140000000267e-01 4.207391910000000262e-02
-2.696232947000000157e-01 -3.209044140000000267e-01 7.512623449999999981e-02
-2.696232947000000157e-01 -2.878520985999999948e-01 4.207391910000000262e-02
-2.696232947000000157e-01 -2.547997831000000102e-01 9.021603700000000239e-03
-2.696232947000000157e-01 -2.217474677000000061e-01 9.021603700000000239e-03
-2.696232947000000157e-01 -1.886951523000000019e-01 9.021603700000000239e-03
-2.365709793000000116e-01 -2.878520985999999948e-01 4.207391910000000262e-02
-2.365709793000000116e-01 -2.547997831000000102e-01 9.021603700000000239e-03
-2.365709793000000116e-01 -2.217474677000000061e-01 9.021603700000000239e-03
-2.365709793000000116e-01 -1.886951523000000019e-01 9.021603700000000239e-03
-2.365709793000000116e-01 -1.556428368999999978e-01 9.021603700000000239e-03
-2.035186639000000075e-01 -2.878520985999999948e-01 9.021603700000000239e-03
-2.035186639000000075e-01 -2.547997831000000102e-01 9.021603700000000239e-03
-2.035186639000000075e-01 -2.217474677000000061e-01 9.021603700000000239e-03
-2.035186639000000075e-01 -1.886951523000000019e-01 -2.403071169999999868e-02
-2.035186639000000075e-01 -1.886951523000000019e-01 9.021603700000000239e-03
-2.035186639000000075e-01 -1.556428368999999978e-01 9.021603700000000239e-03
-2.035186639000000075e-01 -1.225905214999999937e-01 9.021603700000000239e-03
-2.035186639000000075e-01 -8.953820599999999519e-02 4.207391910000000262e-02
-2.035186639000000075e-01 -8.953820599999999519e-02 7.512623449999999981e-02
-1.704663485000000034e-01 -2.878520985999999948e-01 9.021603700000000239e-03
-1.704663485000000034e-01 -2.878520985999999948e-01 7.512623449999999981e-02
-1.704663485000000034e-01 -2.547997831000000102e-01 4.207391910000000262e-02
-1.704663485000000034e-01 -1.886951523000000019e-01 -2.403071169999999868e-02
-1.704663485000000034e-01 -1.556428368999999978e-01 9.021603700000000239e-03
-1.704663485000000034e-01 -1.225905214999999937e-01 -2.403071169999999868e-02
-1.704663485000000034e-01 -1.225905214999999937e-01 9.021603700000000239e-03
-1.704663485000000034e-01 -8.953820599999999519e-02 9.021603700000000239e-03
-1.704663485000000034e-01 -8.953820599999999519e-02 4.207391910000000262e-02
-1.374140329999999910e-01 -2.878520985999999948e-01 7.512623449999999981e-02
-1.374140329999999910e-01 -2.547997831000000102e-01 4.207391910000000262e-02
-1.374140329999999910e-01 -2.217474677000000061e-01 -2.403071169999999868e-02
-1.374140329999999910e-01 -1.886951523000000019e-01 -2.403071169999999868e-02
-1.374140329999999910e-01 -1.225905214999999937e-01 -2.403071169999999868e-02
-1.043617176000000007e-01 -2.547997831000000102e-01 4.207391910000000262e-02
-1.043617176000000007e-01 -2.547997831000000102e-01 7.512623449999999981e-02
-1.043617176000000007e-01 -2.217474677000000061e-01 -2.403071169999999868e-02
-1.043617176000000007e-01 -2.217474677000000061e-01 9.021603700000000239e-03
-1.043617176000000007e-01 -1.556428368999999978e-01 -2.403071169999999868e-02
-1.043617176000000007e-01 -1.225905214999999937e-01 -2.403071169999999868e-02
-1.043617176000000007e-01 -8.953820599999999519e-02 9.021603700000000239e-03
-1.043617176000000007e-01 -5.648589059999999801e-02 9.021603700000000239e-03
-7.130940219999999663e-02 -2.547997831000000102e-01 7.512623449999999981e-02
-7.130940219999999663e-02 -1.556428368999999978e-01 -2.403071169999999868e-02
-7.130940219999999663e-02 -1.225905214999999937e-01 -2.403071169999999868e-02
-7.130940219999999663e-02 -8.953820599999999519e-02 -2.403071169999999868e-02
-7.130940219999999663e-02 -2.343357520000000083e-02 -2.403071169999999868e-02
-7.130940219999999663e-02 -2.343357520000000083e-02 9.021603700000000239e-03
-3.825708679999999945e-02 -2.547997831000000102e-01 4.207391910000000262e-02
-3.825708679999999945e-02 -2.547997831000000102e-01 7.512623449999999981e-02
-3.825708679999999945e-02 -2.217474677000000061e-01 4.207391910000000262e-02
-3.825708679999999945e-02 -1.886951523000000019e-01 9.021603700000000239e-03
-3.825708679999999945e-02 -8.953820599999999519e-02 -2.403071169999999868e-02
-3.825708679999999945e-02 -5.648589059999999801e-02 -2.403071169999999868e-02
-3.825708679999999945e-02 9.618740199999999824e-03 -2.403071169999999868e-02
-5.204771300000000066e-03 -1.886951523000000019e-01 -2.403071169999999868e-02
-5.204771300000000066e-03 -1.886951523000000019e-01 9.021603700000000239e-03
-5.204771300000000066e-03 -1.556428368999999978e-01 -2.403071169999999868e-02
-5.204771300000000066e-03 -1.225905214999999937e-01 -2.403071169999999868e-02
-5.204771300000000066e-03 -5.648589059999999801e-02 -2.403071169999999868e-02
-5.204771300000000066e-03 9.618740199999999824e-03 -2.403071169999999868e-02
2.784754409999999972e-02 -1.556428368999999978e-01 -2.403071169999999868e-02
2.784754409999999972e-02 -1.556428368999999978e-01 9.021603700000000239e-03
2.784754409999999972e-02 -1.225905214999999937e-01 -2.403071169999999868e-02
2.784754409999999972e-02 -8.953820599999999519e-02 -5.708302719999999719e-02
2.784754409999999972e-02 -5.648589059999999801e-02 -5.708302719999999719e-02
2.784754409999999972e-02 -2.343357520000000083e-02 -5.708302719999999719e-02
2.784754409999999972e-02 -2.343357520000000083e-02 -2.403071169999999868e-02
2.784754409999999972e-02 7.572337110000000593e-02 9.021603700000000239e-03
2.784754409999999972e-02 1.087756864999999962e-01 9.021603700000000239e-03
6.089985950000000037e-02 -8.953820599999999519e-02 -2.403071169999999868e-02
6.089985950000000037e-02 -5.648589059999999801e-02 -5.708302719999999719e-02
6.089985950000000037e-02 1.087756864999999962e-01 9.021603700000000239e-03
9.395217490000000449e-02 -8.953820599999999519e-02 -2.403071169999999868e-02
9.395217490000000449e-02 -5.648589059999999801e-02 -5.708302719999999719e-02
9.395217490000000449e-02 -2.343357520000000083e-02 -5.708302719999999719e-02
9.395217490000000449e-02 9.618740199999999824e-03 -5.708302719999999719e-02
9.395217490000000449e-02 4.267105570000000181e-02 -5.708302719999999719e-02
9.395217490000000449e-02 7.572337110000000593e-02 -5.708302719999999719e-02
9.395217490000000449e-02 1.087756864999999962e-01 -5.708302719999999719e-02
1.270044902999999947e-01 -1.225905214999999937e-01 4.207391910000000262e-02
1.270044902999999947e-01 -8.953820599999999519e-02 -2.403071169999999868e-02
1.270044902999999947e-01 -8.953820599999999519e-02 9.021603700000000239e-03
1.270044902999999947e-01 -5.648589059999999801e-02 -5.708302719999999719e-02
1.270044902999999947e-01 -5.648589059999999801e-02 -2.403071169999999868e-02
1.270044902999999947e-01 1.418280019000000003e-01 -5.708302719999999719e-02
1.270044902999999947e-01 1.748803173000000044e-01 -5.708302719999999719e-02
1.270044902999999947e-01 2.079326327999999890e-01 -5.708302719999999719e-02
1.270044902999999947e-01 2.079326327999999890e-01 9.021603700000000239e-03
1.600568058000000071e-01 -1.225905214999999937e-01 4.207391910000000262e-02
1.600568058000000071e-01 -8.953820599999999519e-02 -2.403071169999999868e-02
1.600568058000000071e-01 -8.953820599999999519e-02 9.021603700000000239e-03
1.600568058000000071e-01 9.618740199999999824e-03 -5.708302719999999719e-02
1.600568058000000071e-01 7.572337110000000593e-02 -5.708302719999999719e-02
1.600568058000000071e-01 1.418280019000000003e-01 -5.708302719999999719e-02
1.600568058000000071e-01 2.409849481999999932e-01 -5.708302719999999719e-02
1.600568058000000071e-01 2.409849481999999932e-01 -2.403071169999999868e-02
1.600568058000000071e-01 2.740372636000000250e-01 -2.403071169999999868e-02
1.931091212000000112e-01 -2.343357520000000083e-02 -2.403071169999999868e-02
1.931091212000000112e-01 -2.343357520000000083e-02 9.021603700000000239e-03
1.931091212000000112e-01 9.618740199999999824e-03 -5.708302719999999719e-02
1.931091212000000112e-01 7.572337110000000593e-02 -5.708302719999999719e-02
1.931091212000000112e-01 2.409849481999999932e-01 -5.708302719999999719e-02
1.931091212000000112e-01 3.401418943999999778e-01 -5.708302719999999719e-02
1.931091212000000112e-01 3.401418943999999778e-01 -2.403071169999999868e-02
1.931091212000000112e-01 3.731942099000000179e-01 9.021603700000000239e-03
1.931091212000000112e-01 4.062465252999999943e-01 9.021603700000000239e-03
1.931091212000000112e-01 6.706650486999999883e-01 9.021603700000000239e-03
1.931091212000000112e-01 6.706650486999999883e-01 4.207391910000000262e-02
1.931091212000000112e-01 7.037173640999999646e-01 9.021603700000000239e-03
2.261614365999999876e-01 -2.343357520000000083e-02 -2.403071169999999868e-02
2.261614365999999876e-01 -2.343357520000000083e-02 9.021603700000000239e-03
2.261614365999999876e-01 1.087756864999999962e-01 -9.013534260000000131e-02
2.261614365999999876e-01 1.418280019000000003e-01 -9.013534260000000131e-02
2.261614365999999876e-01 2.079326327999999890e-01 -9.013534260000000131e-02
2.261614365999999876e-01 2.409849481999999932e-01 -9.013534260000000131e-02
2.261614365999999876e-01 2.740372636000000250e-01 -9.013534260000000131e-02
2.261614365999999876e-01 2.740372636000000250e-01 -5.708302719999999719e-02
2.261614365999999876e-01 3.070895790000000014e-01 -5.708302719999999719e-02
2.261614365999999876e-01 4.392988407000000262e-01 -2.403071169999999868e-02
2.261614365999999876e-01 4.723511561000000025e-01 -2.403071169999999868e-02
2.261614365999999876e-01 5.054034715999999872e-01 9.021603700000000239e-03
2.261614365999999876e-01 5.384557869999999635e-01 9.021603700000000239e-03
2.261614365999999876e-01 5.715081024000000509e-01 9.021603700000000239e-03
2.261614365999999876e-01 6.045604178000000273e-01 9.021603700000000239e-03
2.261614365999999876e-01 6.706650486999999883e-01 9.021603700000000239e-03
2.261614365999999876e-01 7.037173640999999646e-01 9.021603700000000239e-03
2.261614365999999876e-01 7.037173640999999646e-01 4.207391910000000262e-02
2.592137520000000195e-01 9.618740199999999824e-03 -2.403071169999999868e-02
2.592137520000000195e-01 9.618740199999999824e-03 9.021603700000000239e-03
2.592137520000000195e-01 4.267105570000000181e-02 -2.403071169999999868e-02
2.592137520000000195e-01 4.267105570000000181e-02 9.021603700000000239e-03
2.592137520000000195e-01 2.079326327999999890e-01 -9.013534260000000131e-02
2.592137520000000195e-01 3.731942099000000179e-01 -5.708302719999999719e-02
2.592137520000000195e-01 4.062465252999999943e-01 -5.708302719999999719e-02
2.592137520000000195e-01 4.392988407000000262e-01 -5.708302719999999719e-02
2.592137520000000195e-01 4.723511561000000025e-01 -5.708302719999999719e-02
2.592137520000000195e-01 5.054034715999999872e-01 -2.403071169999999868e-02
2.592137520000000195e-01 5.384557869999999635e-01 9.021603700000000239e-03
2.592137520000000195e-01 6.376127332000000036e-01 9.021603700000000239e-03
2.592137520000000195e-01 6.376127332000000036e-01 4.207391910000000262e-02
2.922660673999999958e-01 4.267105570000000181e-02 9.021603700000000239e-03
2.922660673999999958e-01 7.572337110000000593e-02 -5.708302719999999719e-02
2.922660673999999958e-01 7.572337110000000593e-02 9.021603700000000239e-03
2.922660673999999958e-01 1.087756864999999962e-01 -5.708302719999999719e-02
2.922660673999999958e-01 1.418280019000000003e-01 -5.708302719999999719e-02
2.922660673999999958e-01 1.748803173000000044e-01 -5.708302719999999719e-02
2.922660673999999958e-01 2.409849481999999932e-01 -9.013534260000000131e-02
2.922660673999999958e-01 2.740372636000000250e-01 -9.013534260000000131e-02
2.922660673999999958e-01 3.401418943999999778e-01 -9.013534260000000131e-02
2.922660673999999958e-01 3.731942099000000179e-01 -5.708302719999999719e-02
2.922660673999999958e-01 4.392988407000000262e-01 -5.708302719999999719e-02
2.922660673999999958e-01 4.723511561000000025e-01 -5.708302719999999719e-02
2.922660673999999958e-01 5.054034715999999872e-01 -2.403071169999999868e-02
2.922660673999999958e-01 5.384557869999999635e-01 9.021603700000000239e-03
3.253183828999999805e-01 1.087756864999999962e-01 9.021603700000000239e-03
3.253183828999999805e-01 1.418280019000000003e-01 -5.708302719999999719e-02
3.253183828999999805e-01 1.418280019000000003e-01 -2.403071169999999868e-02
3.253183828999999805e-01 1.418280019000000003e-01 9.021603700000000239e-03
3.253183828999999805e-01 1.748803173000000044e-01 -5.708302719999999719e-02
3.253183828999999805e-01 1.748803173000000044e-01 -2.403071169999999868e-02
3.253183828999999805e-01 2.409849481999999932e-01 -5.708302719999999719e-02
3.253183828999999805e-01 2.740372636000000250e-01 -5.708302719999999719e-02
3.253183828999999805e-01 3.401418943999999778e-01 -9.013534260000000131e-02
3.253183828999999805e-01 3.731942099000000179e-01 -5.708302719999999719e-02
3.253183828999999805e-01 4.392988407000000262e-01 -5.708302719999999719e-02
3.253183828999999805e-01 5.054034715999999872e-01 -2.403071169999999868e-02
3.583706983000000124e-01 1.418280019000000003e-01 -2.403071169999999868e-02
3.583706983000000124e-01 1.418280019000000003e-01 9.021603700000000239e-03
3.583706983000000124e-01 1.748803173000000044e-01 9.021603700000000239e-03
3.583706983000000124e-01 2.079326327999999890e-01 -5.708302719999999719e-02
3.583706983000000124e-01 2.079326327999999890e-01 9.021603700000000239e-03
3.583706983000000124e-01 2.409849481999999932e-01 -5.708302719999999719e-02
3.583706983000000124e-01 3.401418943999999778e-01 -5.708302719999999719e-02
3.583706983000000124e-01 3.731942099000000179e-01 -5.708302719999999719e-02
3.583706983000000124e-01 4.392988407000000262e-01 -2.403071169999999868e-02
3.583706983000000124e-01 4.392988407000000262e-01 9.021603700000000239e-03
3.914230136999999887e-01 2.409849481999999932e-01 9.021603700000000239e-03
3.914230136999999887e-01 2.740372636000000250e-01 9.021603700000000239e-03
3.914230136999999887e-01 3.070895790000000014e-01 9.021603700000000239e-03
3.914230136999999887e-01 3.401418943999999778e-01 -2.403071169999999868e-02
3.914230136999999887e-01 3.731942099000000179e-01 -2.403071169999999868e-02
-5.009895026999999779e-01 -3.043782562999999830e-01 1.081785499000000039e-01
-4.844633449999999897e-01 -3.209044140000000267e-01 1.081785499000000039e-01
-4.844633449999999897e-01 -3.043782562999999830e-01 1.081785499000000039e-01
-5.009895026999999779e-01 -2.878520985999999948e-01 1.247047076000000060e-01
-4.844633449999999897e-01 -2.878520985999999948e-01 1.081785499000000039e-01
-5.009895026999999779e-01 -2.713259409000000066e-01 1.081785499000000039e-01
-4.844633449999999897e-01 -2.878520985999999948e-01 9.165239220000000187e-02
-4.844633449999999897e-01 -2.713259409000000066e-01 1.081785499000000039e-01
-4.844633449999999897e-01 -3.043782562999999830e-01 1.247047076000000060e-01
-4.844633449999999897e-01 -2.713259409000000066e-01 1.247047076000000060e-01
-5.009895026999999779e-01 -2.713259409000000066e-01 1.412308653999999886e-01
-4.844633449999999897e-01 -2.878520985999999948e-01 1.247047076000000060e-01
-5.009895026999999779e-01 -2.547997831000000102e-01 1.247047076000000060e-01
-4.844633449999999897e-01 -2.547997831000000102e-01 1.247047076000000060e-01
-4.844633449999999897e-01 -2.547997831000000102e-01 1.412308653999999886e-01
-4.844633449999999897e-01 -2.878520985999999948e-01 1.412308653999999886e-01
-4.679371873000000015e-01 -2.547997831000000102e-01 1.247047076000000060e-01
-4.679371873000000015e-01 -3.209044140000000267e-01 1.247047076000000060e-01
-4.679371873000000015e-01 -3.043782562999999830e-01 1.081785499000000039e-01
-4.514110295000000050e-01 -3.209044140000000267e-01 1.081785499000000039e-01
-4.679371873000000015e-01 -3.043782562999999830e-01 9.165239220000000187e-02
-4.514110295000000050e-01 -3.209044140000000267e-01 9.165239220000000187e-02
-4.679371873000000015e-01 -3.043782562999999830e-01 1.247047076000000060e-01
-4.679371873000000015e-01 -2.878520985999999948e-01 1.412308653999999886e-01
-4.679371873000000015e-01 -2.878520985999999948e-01 9.165239220000000187e-02
-4.514110295000000050e-01 -2.878520985999999948e-01 7.512623449999999981e-02
-4.679371873000000015e-01 -2.713259409000000066e-01 9.165239220000000187e-02
-4.514110295000000050e-01 -3.043782562999999830e-01 7.512623449999999981e-02
-4.679371873000000015e-01 -2.713259409000000066e-01 1.247047076000000060e-01
-4.514110295000000050e-01 -3.043782562999999830e-01 1.081785499000000039e-01
-4.514110295000000050e-01 -2.547997831000000102e-01 9.165239220000000187e-02
-4.514110295000000050e-01 -2.382736253999999942e-01 1.081785499000000039e-01
-4.514110295000000050e-01 -2.547997831000000102e-01 1.247047076000000060e-01
-4.348848718000000169e-01 -3.209044140000000267e-01 9.165239220000000187e-02
-4.348848718000000169e-01 -3.043782562999999830e-01 7.512623449999999981e-02
-4.183587140999999732e-01 -3.209044140000000267e-01 7.512623449999999981e-02
-4.183587140999999732e-01 -3.209044140000000267e-01 9.165239220000000187e-02
-4.183587140999999732e-01 -3.043782562999999830e-01 7.512623449999999981e-02
-4.348848718000000169e-01 -3.043782562999999830e-01 9.165239220000000187e-02
-4.348848718000000169e-01 -2.713259409000000066e-01 7.512623449999999981e-02
-4.183587140999999732e-01 -2.713259409000000066e-01 7.512623449999999981e-02
-4.348848718000000169e-01 -2.547997831000000102e-01 9.165239220000000187e-02
-4.348848718000000169e-01 -2.382736253999999942e-01 7.512623449999999981e-02
-4.183587140999999732e-01 -2.547997831000000102e-01 7.512623449999999981e-02
-4.348848718000000169e-01 -2.382736253999999942e-01 9.165239220000000187e-02
-4.183587140999999732e-01 -2.547997831000000102e-01 5.860007679999999775e-02
-4.183587140999999732e-01 -2.382736253999999942e-01 7.512623449999999981e-02
-4.183587140999999732e-01 -2.713259409000000066e-01 9.165239220000000187e-02
-4.348848718000000169e-01 -2.217474677000000061e-01 9.165239220000000187e-02
-4.183587140999999732e-01 -2.217474677000000061e-01 7.512623449999999981e-02
-4.183587140999999732e-01 -2.052213099999999901e-01 9.165239220000000187e-02
-4.183587140999999732e-01 -2.382736253999999942e-01 9.165239220000000187e-02
-4.018325563999999850e-01 -3.209044140000000267e-01 9.165239220000000187e-02
-4.018325563999999850e-01 -3.043782562999999830e-01 7.512623449999999981e-02
-3.853063986999999968e-01 -3.209044140000000267e-01 7.512623449999999981e-02
-3.853063986999999968e-01 -3.209044140000000267e-01 9.165239220000000187e-02
-3.853063986999999968e-01 -3.043782562999999830e-01 7.512623449999999981e-02
-3.853063986999999968e-01 -3.043782562999999830e-01 5.860007679999999775e-02
-3.853063986999999968e-01 -3.209044140000000267e-01 1.081785499000000039e-01
-4.018325563999999850e-01 -3.043782562999999830e-01 9.165239220000000187e-02
-4.018325563999999850e-01 -2.713259409000000066e-01 7.512623449999999981e-02
-3.853063986999999968e-01 -2.878520985999999948e-01 7.512623449999999981e-02
-3.853063986999999968e-01 -2.547997831000000102e-01 4.207391910000000262e-02
-4.018325563999999850e-01 -2.547997831000000102e-01 5.860007679999999775e-02
-4.018325563999999850e-01 -2.382736253999999942e-01 5.860007679999999775e-02
-3.853063986999999968e-01 -2.713259409000000066e-01 5.860007679999999775e-02
-4.018325563999999850e-01 -2.382736253999999942e-01 7.512623449999999981e-02
-4.018325563999999850e-01 -2.052213099999999901e-01 7.512623449999999981e-02
-4.018325563999999850e-01 -1.886951523000000019e-01 9.165239220000000187e-02
-3.853063986999999968e-01 -1.886951523000000019e-01 7.512623449999999981e-02
-3.853063986999999968e-01 -2.052213099999999901e-01 5.860007679999999775e-02
-3.853063986999999968e-01 -1.886951523000000019e-01 9.165239220000000187e-02
-3.853063986999999968e-01 -1.721689946000000138e-01 1.081785499000000039e-01
-3.687802410000000086e-01 -3.209044140000000267e-01 5.860007679999999775e-02
-3.522540833000000204e-01 -3.209044140000000267e-01 4.207391910000000262e-02
-3.687802410000000086e-01 -3.043782562999999830e-01 5.860007679999999775e-02
-3.522540833000000204e-01 -3.043782562999999830e-01 4.207391910000000262e-02
-3.522540833000000204e-01 -3.209044140000000267e-01 5.860007679999999775e-02
-3.687802410000000086e-01 -3.209044140000000267e-01 9.165239220000000187e-02
-3.687802410000000086e-01 -3.043782562999999830e-01 7.512623449999999981e-02
-3.522540833000000204e-01 -3.209044140000000267e-01 9.165239220000000187e-02
-3.522540833000000204e-01 -3.209044140000000267e-01 1.081785499000000039e-01
-3.687802410000000086e-01 -3.043782562999999830e-01 9.165239220000000187e-02
-3.687802410000000086e-01 -2.713259409000000066e-01 4.207391910000000262e-02
-3.687802410000000086e-01 -2.878520985999999948e-01 5.860007679999999775e-02
-3.522540833000000204e-01 -2.878520985999999948e-01 4.207391910000000262e-02
-3.522540833000000204e-01 -3.043782562999999830e-01 7.512623449999999981e-02
-3.687802410000000086e-01 -2.382736253999999942e-01 4.207391910000000262e-02
-3.522540833000000204e-01 -2.547997831000000102e-01 4.207391910000000262e-02
-3.687802410000000086e-01 -2.052213099999999901e-01 4.207391910000000262e-02
-3.522540833000000204e-01 -2.217474677000000061e-01 4.207391910000000262e-02
-3.522540833000000204e-01 -2.052213099999999901e-01 4.207391910000000262e-02
-3.687802410000000086e-01 -1.886951523000000019e-01 5.860007679999999775e-02
-3.522540833000000204e-01 -1.886951523000000019e-01 2.554776140000000056e-02
-3.522540833000000204e-01 -1.721689946000000138e-01 4.207391910000000262e-02
-3.522540833000000204e-01 -2.052213099999999901e-01 2.554776140000000056e-02
-3.522540833000000204e-01 -1.721689946000000138e-01 5.860007679999999775e-02
-3.687802410000000086e-01 -1.721689946000000138e-01 9.165239220000000187e-02
-3.522540833000000204e-01 -1.886951523000000019e-01 5.860007679999999775e-02
-3.522540833000000204e-01 -2.052213099999999901e-01 5.860007679999999775e-02
-3.522540833000000204e-01 -1.556428368999999978e-01 7.512623449999999981e-02
-3.357279255999999767e-01 -1.556428368999999978e-01 9.165239220000000187e-02
-3.357279255999999767e-01 -3.043782562999999830e-01 4.207391910000000262e-02
-3.192017678999999886e-01 -3.209044140000000267e-01 4.207391910000000262e-02
-3.357279255999999767e-01 -3.209044140000000267e-01 5.860007679999999775e-02
-3.192017678999999886e-01 -3.043782562999999830e-01 4.207391910000000262e-02
-3.357279255999999767e-01 -3.209044140000000267e-01 9.165239220000000187e-02
-3.192017678999999886e-01 -3.209044140000000267e-01 7.512623449999999981e-02
-3.192017678999999886e-01 -3.209044140000000267e-01 1.081785499000000039e-01
-3.026756100999999921e-01 -3.209044140000000267e-01 9.165239220000000187e-02
-3.357279255999999767e-01 -2.713259409000000066e-01 4.207391910000000262e-02
-3.192017678999999886e-01 -2.878520985999999948e-01 4.207391910000000262e-02
-3.192017678999999886e-01 -2.878520985999999948e-01 2.554776140000000056e-02
-3.357279255999999767e-01 -2.547997831000000102e-01 2.554776140000000056e-02
-3.357279255999999767e-01 -2.382736253999999942e-01 9.021603700000000239e-03
-3.192017678999999886e-01 -2.713259409000000066e-01 9.021603700000000239e-03
-3.192017678999999886e-01 -2.382736253999999942e-01 9.021603700000000239e-03
-3.192017678999999886e-01 -2.713259409000000066e-01 2.554776140000000056e-02
-3.357279255999999767e-01 -2.382736253999999942e-01 4.207391910000000262e-02
-3.192017678999999886e-01 -2.547997831000000102e-01 2.554776140000000056e-02
-3.357279255999999767e-01 -2.217474677000000061e-01 2.554776140000000056e-02
-3.357279255999999767e-01 -2.052213099999999901e-01 9.021603700000000239e-03
-3.192017678999999886e-01 -2.217474677000000061e-01 9.021603700000000239e-03
-3.192017678999999886e-01 -2.052213099999999901e-01 9.021603700000000239e-03
-3.357279255999999767e-01 -2.052213099999999901e-01 4.207391910000000262e-02
-3.192017678999999886e-01 -2.052213099999999901e-01 2.554776140000000056e-02
-3.357279255999999767e-01 -1.886951523000000019e-01 2.554776140000000056e-02
-3.192017678999999886e-01 -1.721689946000000138e-01 9.021603700000000239e-03
-3.192017678999999886e-01 -1.721689946000000138e-01 2.554776140000000056e-02
-3.357279255999999767e-01 -1.721689946000000138e-01 4.207391910000000262e-02
-3.192017678999999886e-01 -1.886951523000000019e-01 2.554776140000000056e-02
-3.192017678999999886e-01 -1.556428368999999978e-01 4.207391910000000262e-02
-3.357279255999999767e-01 -1.556428368999999978e-01 5.860007679999999775e-02
-3.192017678999999886e-01 -1.556428368999999978e-01 5.860007679999999775e-02
-3.192017678999999886e-01 -1.556428368999999978e-01 7.512623449999999981e-02
-3.192017678999999886e-01 -1.391166792000000096e-01 7.512623449999999981e-02
-3.026756100999999921e-01 -1.391166792000000096e-01 7.512623449999999981e-02
-3.026756100999999921e-01 -3.043782562999999830e-01 4.207391910000000262e-02
-2.861494524000000039e-01 -3.209044140000000267e-01 4.207391910000000262e-02
-3.026756100999999921e-01 -3.209044140000000267e-01 5.860007679999999775e-02
-3.026756100999999921e-01 -3.043782562999999830e-01 2.554776140000000056e-02
-2.861494524000000039e-01 -3.043782562999999830e-01 4.207391910000000262e-02
-2.861494524000000039e-01 -3.209044140000000267e-01 5.860007679999999775e-02
-2.861494524000000039e-01 -3.209044140000000267e-01 7.512623449999999981e-02
-2.861494524000000039e-01 -3.209044140000000267e-01 1.081785499000000039e-01
-3.026756100999999921e-01 -3.043782562999999830e-01 7.512623449999999981e-02
-3.026756100999999921e-01 -2.878520985999999948e-01 2.554776140000000056e-02
-3.026756100999999921e-01 -2.713259409000000066e-01 9.021603700000000239e-03
-2.861494524000000039e-01 -2.878520985999999948e-01 9.021603700000000239e-03
-2.861494524000000039e-01 -2.878520985999999948e-01 2.554776140000000056e-02
-2.861494524000000039e-01 -2.878520985999999948e-01 4.207391910000000262e-02
-2.861494524000000039e-01 -2.547997831000000102e-01 9.021603700000000239e-03
-3.026756100999999921e-01 -2.382736253999999942e-01 9.021603700000000239e-03
-2.861494524000000039e-01 -2.382736253999999942e-01 9.021603700000000239e-03
-3.026756100999999921e-01 -2.052213099999999901e-01 9.021603700000000239e-03
-2.861494524000000039e-01 -2.217474677000000061e-01 9.021603700000000239e-03
-2.861494524000000039e-01 -2.052213099999999901e-01 9.021603700000000239e-03
-3.026756100999999921e-01 -1.721689946000000138e-01 9.021603700000000239e-03
-2.861494524000000039e-01 -1.721689946000000138e-01 9.021603700000000239e-03
-3.026756100999999921e-01 -1.556428368999999978e-01 2.554776140000000056e-02
-2.861494524000000039e-01 -1.556428368999999978e-01 9.021603700000000239e-03
-2.861494524000000039e-01 -1.556428368999999978e-01 2.554776140000000056e-02
-2.861494524000000039e-01 -1.391166792000000096e-01 9.021603700000000239e-03
-2.861494524000000039e-01 -1.556428368999999978e-01 4.207391910000000262e-02
-3.026756100999999921e-01 -1.556428368999999978e-01 5.860007679999999775e-02
-2.861494524000000039e-01 -1.391166792000000096e-01 4.207391910000000262e-02
-3.026756100999999921e-01 -1.391166792000000096e-01 5.860007679999999775e-02
-2.861494524000000039e-01 -1.391166792000000096e-01 5.860007679999999775e-02
-2.861494524000000039e-01 -1.225905214999999937e-01 7.512623449999999981e-02
-2.861494524000000039e-01 -1.225905214999999937e-01 4.207391910000000262e-02
-2.696232947000000157e-01 -1.225905214999999937e-01 5.860007679999999775e-02
-2.530971370000000276e-01 -3.209044140000000267e-01 4.207391910000000262e-02
-2.696232947000000157e-01 -3.043782562999999830e-01 2.554776140000000056e-02
-2.530971370000000276e-01 -3.043782562999999830e-01 4.207391910000000262e-02
-2.530971370000000276e-01 -3.209044140000000267e-01 5.860007679999999775e-02
-2.696232947000000157e-01 -3.209044140000000267e-01 9.165239220000000187e-02
-2.530971370000000276e-01 -3.209044140000000267e-01 7.512623449999999981e-02
-2.696232947000000157e-01 -3.043782562999999830e-01 5.860007679999999775e-02
-2.696232947000000157e-01 -2.878520985999999948e-01 2.554776140000000056e-02
-2.696232947000000157e-01 -2.713259409000000066e-01 9.021603700000000239e-03
-2.530971370000000276e-01 -2.878520985999999948e-01 9.021603700000000239e-03
-2.530971370000000276e-01 -2.878520985999999948e-01 2.554776140000000056e-02
-2.530971370000000276e-01 -2.547997831000000102e-01 9.021603700000000239e-03
-2.530971370000000276e-01 -2.382736253999999942e-01 9.021603700000000239e-03
-2.696232947000000157e-01 -2.052213099999999901e-01 9.021603700000000239e-03
-2.530971370000000276e-01 -2.217474677000000061e-01 9.021603700000000239e-03
-2.696232947000000157e-01 -1.721689946000000138e-01 9.021603700000000239e-03
-2.530971370000000276e-01 -1.886951523000000019e-01 9.021603700000000239e-03
-2.530971370000000276e-01 -1.721689946000000138e-01 9.021603700000000239e-03
-2.696232947000000157e-01 -1.556428368999999978e-01 2.554776140000000056e-02
-2.696232947000000157e-01 -1.391166792000000096e-01 9.021603700000000239e-03
-2.530971370000000276e-01 -1.556428368999999978e-01 9.021603700000000239e-03
-2.696232947000000157e-01 -1.391166792000000096e-01 2.554776140000000056e-02
-2.696232947000000157e-01 -1.391166792000000096e-01 4.207391910000000262e-02
-2.696232947000000157e-01 -1.225905214999999937e-01 2.554776140000000056e-02
-2.530971370000000276e-01 -1.225905214999999937e-01 9.021603700000000239e-03
-2.530971370000000276e-01 -1.060643636999999972e-01 2.554776140000000056e-02
-2.530971370000000276e-01 -1.225905214999999937e-01 4.207391910000000262e-02
-2.530971370000000276e-01 -1.060643636999999972e-01 5.860007679999999775e-02
-2.365709793000000116e-01 -3.043782562999999830e-01 4.207391910000000262e-02
-2.365709793000000116e-01 -3.209044140000000267e-01 5.860007679999999775e-02
-2.365709793000000116e-01 -3.043782562999999830e-01 2.554776140000000056e-02
-2.200448215999999957e-01 -3.043782562999999830e-01 4.207391910000000262e-02
-2.200448215999999957e-01 -3.209044140000000267e-01 5.860007679999999775e-02
-2.200448215999999957e-01 -3.209044140000000267e-01 7.512623449999999981e-02
-2.200448215999999957e-01 -3.043782562999999830e-01 7.512623449999999981e-02
-2.365709793000000116e-01 -3.043782562999999830e-01 5.860007679999999775e-02
-2.365709793000000116e-01 -2.878520985999999948e-01 2.554776140000000056e-02
-2.365709793000000116e-01 -2.713259409000000066e-01 9.021603700000000239e-03
-2.200448215999999957e-01 -2.878520985999999948e-01 9.021603700000000239e-03
-2.200448215999999957e-01 -2.878520985999999948e-01 2.554776140000000056e-02
-2.200448215999999957e-01 -2.878520985999999948e-01 4.207391910000000262e-02
-2.200448215999999957e-01 -2.878520985999999948e-01 5.860007679999999775e-02
-2.200448215999999957e-01 -2.547997831000000102e-01 9.021603700000000239e-03
-2.200448215999999957e-01 -2.382736253999999942e-01 9.021603700000000239e-03
-2.200448215999999957e-01 -2.713259409000000066e-01 2.554776140000000056e-02
-2.365709793000000116e-01 -2.052213099999999901e-01 9.021603700000000239e-03
-2.200448215999999957e-01 -2.052213099999999901e-01 9.021603700000000239e-03
-2.200448215999999957e-01 -2.052213099999999901e-01 -7.504554000000000086e-03
-2.200448215999999957e-01 -1.886951523000000019e-01 9.021603700000000239e-03
-2.200448215999999957e-01 -1.721689946000000138e-01 9.021603700000000239e-03
-2.365709793000000116e-01 -1.391166792000000096e-01 9.021603700000000239e-03
